ply
format ascii 1.0
element vertex 50
property float x
property float y
property float z
property float nx
property float ny
property float nz
property float f_dc_0
property float f_dc_1
property float f_dc_2
property float f_rest_0
property float f_rest_1
property float f_rest_2
property float f_rest_3
property float f_rest_4
property float f_rest_5
property float f_rest_6
property float f_rest_7
property float f_rest_8
property float f_rest_9
property float f_rest_10
property float f_rest_11
property float f_rest_12
property float f_rest_13
property float f_rest_14
property float f_rest_15
property float f_rest_16
property float f_rest_17
property float f_rest_18
property float f_rest_19
property float f_rest_20
property float f_rest_21
property float f_rest_22
property float f_rest_23
property float f_rest_24
property float f_rest_25
property float f_rest_26
property float f_rest_27
property float f_rest_28
property float f_rest_29
property float f_rest_30
property float f_rest_31
property float f_rest_32
property float f_rest_33
property float f_rest_34
property float f_rest_35
property float f_rest_36
property float f_rest_37
property float f_rest_38
property float f_rest_39
property float f_rest_40
property float f_rest_41
property float f_rest_42
property float f_rest_43
property float f_rest_44
property float opacity
property float scale_0
property float scale_1
property float scale_2
property float rot_0
property float rot_1
property float rot_2
property float rot_3
end_header
-5.44590 6.45710 4.93760 0 0 0 -0.59396 -0.44129 -0.31650 -0.00950 0.00416 0.02734 -0.01013 0.01458 -0.02853 0.00831 0.16180 -0.05748 -0.01196 0.01017 -0.01312 -0.02423 0.13359 0.01046 0.00954 -0.00253 0.01399 0.01060 0.02892 0.00315 0.00023 0.18270 -0.03878 0.00656 -0.02926 0.00962 0.01049 0.14706 0.04821 0.02689 -0.00266 0.00439 0.02554 0.03282 0.02107 0.00499 0.20672 -0.02720 0.01036 -0.05724 0.00937 0.03468 0.17323 0.07902 -1.31198 -4.58249 -3.47610 -3.47193 0.76731 0.12679 -0.37510 0.01787
-0.62420 2.19060 1.60650 0 0 0 -1.34405 -1.76303 -1.29941 0.01677 0.07296 -0.01661 0.00101 -0.10440 0.03366 -0.02805 0.04998 -0.04215 0.06591 -0.05190 -0.10925 -0.03870 -0.20028 -0.00067 0.00840 0.08608 0.00354 -0.00340 -0.15205 0.00565 -0.07105 -0.00129 0.00281 0.13676 -0.00302 -0.18576 -0.01101 -0.17072 0.02287 0.01538 0.06173 -0.00191 0.00412 -0.10746 0.02770 -0.03261 0.02159 -0.04369 0.08654 -0.02822 -0.11658 -0.03169 -0.20874 0.02542 11.93445 -5.30204 -5.99608 -3.85594 0.85298 0.28133 0.24711 -0.11198
-0.54010 1.94410 1.77640 0 0 0 -0.89400 -1.18146 -0.79210 0.02840 0.00322 -0.02024 0.07011 -0.02876 -0.00939 0.04569 0.06553 -0.03709 -0.03290 -0.05867 -0.07080 0.02151 0.08124 0.11180 0.01811 -0.02219 -0.01356 0.07621 -0.01318 -0.02067 0.05360 0.05502 -0.02703 -0.04285 -0.05287 -0.08014 -0.00862 0.11053 0.13136 0.02023 -0.02218 0.01263 0.06509 -0.01356 -0.00726 0.06324 0.02948 -0.05485 -0.02292 -0.03936 -0.05171 0.00250 0.05864 0.13903 0.92236 -6.62121 -5.78608 -9.23204 0.41608 -0.10503 0.43245 0.46089
-0.57510 2.00110 1.74810 0 0 0 -0.74398 -0.99642 -0.63357 0.06064 0.05163 0.01558 -0.01001 0.00350 0.07894 -0.00118 -0.01127 -0.01606 -0.01683 0.09293 0.04506 -0.00170 -0.06989 0.06727 0.04868 0.03420 0.01399 -0.00981 0.01633 0.06790 0.00560 -0.02089 0.00733 -0.03069 0.08814 0.04045 -0.00623 -0.05601 0.06927 0.05963 0.03913 0.02814 -0.00205 0.01480 0.09025 0.00868 -0.03258 -0.02380 -0.02051 0.09933 0.05814 -0.01527 -0.09110 0.10782 1.40115 -7.46069 -4.94608 -5.85278 0.97291 0.23718 -0.13681 0.05606
-0.58310 2.00590 1.80590 0 0 0 -0.14391 -0.46772 0.12739 -0.00034 -0.01228 0.03924 -0.02132 0.06080 -0.02144 0.01071 -0.05950 -0.01249 0.01567 0.10120 0.01301 0.04371 -0.07631 0.03080 -0.02217 -0.03089 0.05293 -0.01621 0.05921 -0.03654 0.02817 -0.09579 0.00055 0.01401 0.11109 0.03002 0.04972 -0.08235 0.04500 -0.01524 -0.02903 0.05965 -0.02491 0.06999 -0.01866 0.02048 -0.09516 -0.00924 0.01958 0.11721 0.03352 0.03267 -0.08498 0.04942 -0.99279 -6.74114 -5.89108 -5.00796 0.96434 -0.25957 0.10148 -0.08142
-0.56310 2.18160 2.15100 0 0 0 -1.19403 -1.41937 -1.01405 -0.00254 0.04226 -0.04073 0.04040 -0.04297 -0.01832 -0.05696 0.04664 -0.07858 0.07312 0.00190 -0.10482 0.04640 -0.01408 0.00662 -0.00131 0.03935 -0.02781 0.03380 -0.05016 -0.01941 -0.04204 0.05099 -0.07720 0.07205 -0.01122 -0.12638 0.04119 -0.00036 0.00539 -0.00402 0.01241 -0.05184 0.04767 -0.01433 -0.01131 -0.04183 0.05420 -0.11502 0.06208 -0.01742 -0.07918 0.06585 0.01700 0.00861 0.28398 -5.90167 -4.42109 -9.53925 0.64738 -0.17126 -0.70607 0.04079
-0.77620 2.51450 1.82080 0 0 0 -1.31405 -1.55155 -1.10917 0.01794 -0.09662 -0.00330 0.01129 0.05814 -0.02289 0.03175 0.01998 -0.05695 0.00129 -0.05453 -0.01460 0.05817 0.05358 0.00777 0.01783 -0.08535 0.05388 -0.00140 0.04859 -0.01732 0.10052 0.00827 -0.04194 -0.01501 -0.02991 -0.00806 0.09988 0.02131 0.02180 0.00719 -0.14308 0.00148 0.00412 0.05160 -0.03596 0.01974 0.00529 -0.05485 0.01076 -0.06939 -0.00105 0.03300 0.01929 -0.00099 3.47589 -4.58249 -5.36608 -8.92484 1.21277 -0.12711 0.08825 -0.05851
-0.81920 2.64500 1.88890 0 0 0 -1.55407 -1.68372 -1.26770 0.05592 0.00560 -0.00066 -0.01130 -0.04112 0.02705 -0.03245 0.00062 -0.02272 0.04697 -0.05453 -0.01509 0.00570 -0.08669 -0.06439 0.04697 0.00842 0.03251 -0.00500 -0.04268 0.01777 -0.00479 -0.00732 0.00009 0.06656 -0.04926 -0.02574 0.00571 -0.08235 -0.07242 0.03781 -0.03553 0.04074 -0.01838 -0.00168 0.00967 0.02084 -0.02311 0.00774 0.00355 -0.08188 -0.00484 -0.05918 -0.04602 -0.01419 8.74254 -5.78174 -5.15608 -3.93274 0.75875 -0.48035 -0.05738 0.09426
-0.88610 2.79250 2.10900 0 0 0 -0.41394 -0.54703 -0.06285 0.01554 0.03533 0.05217 -0.06985 0.00028 0.06405 -0.03278 0.03106 -0.01036 -0.06897 -0.02105 0.03865 -0.09217 0.02197 -0.05173 0.02154 0.05901 0.05958 -0.08022 0.00059 0.06957 -0.00443 0.03441 -0.00714 -0.10246 0.00780 0.07536 -0.08812 0.02131 -0.04815 0.02386 0.05865 0.02862 -0.05975 0.00637 0.06633 -0.03335 0.02738 0.01793 -0.09910 0.00451 0.05861 -0.14567 0.03763 -0.06819 5.55063 -5.30204 -5.68108 -6.62079 0.73305 -0.19334 0.32654 0.43798
-0.04060 0.76330 1.40090 0 0 0 0.45616 -0.09764 0.63470 -0.07186 -0.15456 -0.00858 0.00165 0.06594 -0.11757 0.02253 -0.02858 -0.13146 -0.01816 0.14596 -0.00079 -0.03432 -0.10447 -0.01296 -0.04159 -0.14818 -0.01166 0.05621 0.15363 -0.12009 0.05467 -0.05507 -0.11697 -0.02677 0.19176 -0.00670 -0.04854 -0.09043 0.00646 -0.09102 -0.18178 -0.02712 0.06110 0.12480 -0.13898 0.05919 -0.07307 -0.09658 -0.06702 0.22148 0.05672 -0.04544 -0.10752 0.03422 -0.35440 -12.73738 -5.57608 -5.39197 0.79301 0.01640 -0.13681 0.39215
0.02690 0.81100 1.42070 0 0 0 1.20625 0.35175 0.79323 0.08742 0.02348 -0.12550 0.02780 0.08089 -0.04511 -0.08322 -0.00833 -0.13925 -0.05775 0.13581 -0.14376 -0.11605 -0.07187 -0.06670 -0.03645 -0.05055 -0.12897 -0.04021 0.03010 -0.10171 -0.06281 0.02888 -0.06770 -0.12834 0.03961 -0.15630 -0.08846 -0.00206 -0.03815 0.12147 -0.00334 -0.07899 -0.12109 0.09759 -0.04368 -0.06506 0.01844 0.06354 -0.20295 0.07132 -0.15683 -0.13830 0.04488 -0.01339 -2.42915 -5.90167 -5.68108 -7.15840 0.39038 -0.41412 0.61779 -0.05851
0.07450 0.65900 1.60430 0 0 0 0.66618 -0.44129 0.22251 0.01212 -0.01092 0.04470 -0.07254 -0.03839 -0.00328 -0.06001 0.09484 -0.06870 0.11026 -0.09139 -0.11615 0.02353 0.05802 -0.20566 0.03440 0.04064 0.12370 -0.06582 -0.03442 0.01986 0.03820 0.13042 -0.03109 0.06146 -0.09583 -0.11368 -0.02227 0.05360 -0.07955 0.02417 -0.01327 0.08437 -0.08298 -0.02851 0.00231 -0.02524 0.12257 -0.05679 0.08013 -0.09976 -0.11043 -0.00119 0.05176 -0.17181 0.92236 -5.66182 -10.93103 -5.16156 0.99004 0.00536 0.23387 -0.20364
0.12420 0.70690 1.34840 0 0 0 0.93621 0.64253 0.92006 -0.03026 -0.15693 0.19043 -0.22864 -0.00223 -0.04930 -0.19036 -0.02051 0.04798 0.15860 -0.10192 -0.10925 0.07364 -0.04421 -0.19184 -0.05045 -0.16687 0.18497 -0.23345 0.00885 -0.01899 -0.19390 -0.03295 0.10224 0.19440 -0.13616 -0.10416 0.10875 -0.03477 -0.19590 -0.04282 -0.16089 0.22348 -0.23795 -0.02966 -0.04221 -0.19262 -0.04467 0.09169 0.19801 -0.11292 -0.10285 0.07323 -0.06054 -0.18701 3.79508 -12.01783 -5.05108 -6.00638 0.54458 0.30341 -0.34863 -0.28766
0.21070 0.65060 1.36250 0 0 0 0.18613 -0.28268 0.09569 -0.01233 -0.06963 -0.13441 0.06088 0.00247 -0.02090 -0.09409 0.05255 0.01746 0.05940 -0.03723 0.08745 0.03261 -0.03977 -0.08781 -0.00674 -0.10049 -0.09858 0.10262 0.05488 -0.05033 -0.04562 0.04949 0.03806 0.03911 -0.06434 0.05904 0.03710 -0.06281 -0.09026 -0.00493 -0.10232 -0.11001 0.08034 0.03818 -0.03265 -0.07133 0.06209 0.04462 0.02560 -0.04138 0.09176 0.04205 -0.05213 -0.10020 -1.15238 -5.06219 -9.14605 -5.08476 0.81014 0.13783 -0.50749 -0.04323
0.09770 0.68030 1.66180 0 0 0 0.84620 0.66897 0.92006 -0.03058 0.04569 -0.09958 0.07175 -0.13325 0.03150 -0.03828 0.01408 -0.09560 0.03674 -0.04926 -0.05650 0.16883 -0.07384 -0.09549 -0.03331 0.00617 -0.09763 0.07821 -0.09068 0.00022 -0.06281 0.01932 -0.06092 0.01990 -0.03418 -0.03118 0.16095 -0.06196 -0.06171 0.00749 -0.01430 -0.14248 0.10828 -0.10057 0.02475 -0.07723 0.03054 -0.08931 0.05126 -0.05792 -0.02615 0.18017 -0.10446 -0.12300 -1.47157 -10.81858 -6.41607 -5.62237 1.24704 -0.03880 0.04853 -0.06615
0.20360 0.73530 1.63800 0 0 0 -0.44395 -1.07572 -0.66527 -0.08452 -0.07073 0.00396 -0.10936 0.05201 0.13010 -0.07932 -0.08128 0.02242 -0.02163 0.03124 0.26888 -0.03500 -0.04224 -0.07476 0.05982 0.06352 -0.04348 0.03420 0.07219 0.25004 -0.00120 -0.02190 0.02269 -0.19775 -0.04926 0.23357 0.02243 0.01111 0.00860 -0.04616 -0.04958 0.00099 -0.06157 0.04431 0.17414 -0.05105 -0.07728 0.02327 -0.10471 0.00080 0.24659 -0.03538 -0.03036 -0.01819 10.49809 -5.06219 -7.15107 -4.70076 1.23847 0.03848 -0.22948 0.08662
0.15300 0.68750 1.67990 0 0 0 0.09612 -0.49416 -0.03114 -0.00199 0.05361 -0.02309 0.05135 -0.01941 0.01008 -0.02018 0.01415 0.01502 0.10742 0.07562 0.02780 0.03294 0.01555 0.01967 0.01069 0.03903 -0.04016 0.07221 0.00531 0.01484 0.00130 0.01681 0.01591 0.06382 0.03600 0.01325 0.01287 -0.01183 0.00681 0.00962 0.03468 -0.02179 0.06364 -0.01356 0.01445 -0.00275 0.01371 0.01939 0.08173 0.04433 0.00842 0.02194 -0.02158 0.00901 -0.03521 -8.77986 -4.73609 -4.85436 0.99861 -0.13815 0.00881 -0.15017
0.08220 1.46550 1.62120 0 0 0 0.66618 0.43106 0.34934 0.12293 0.13537 -0.02443 -0.04572 0.00879 0.11158 0.01706 0.15154 -0.20138 -0.03478 0.07938 0.08203 0.06490 -0.06495 -0.13272 0.15124 0.15117 -0.00074 -0.05421 0.02380 0.13808 0.02745 0.16259 -0.18296 -0.04402 0.10617 0.08397 0.08964 -0.06876 -0.12559 0.16451 0.16071 0.01069 -0.05322 0.02208 0.16494 0.03522 0.17464 -0.17762 -0.05419 0.12329 0.09744 0.10239 -0.06818 -0.12780 3.31629 -12.73738 -6.31107 -5.39197 0.86154 0.11575 -0.26920 0.20883
0.25510 1.41680 1.54570 0 0 0 -0.86399 -1.31364 -1.80671 0.01380 -0.02711 -0.07598 0.03303 0.04941 0.11965 -0.02147 0.00421 0.10327 0.05156 -0.23019 -0.09693 -0.02726 0.16273 -0.04021 0.01526 0.01261 -0.07056 0.04781 0.00413 0.08127 0.03569 -0.01033 0.12846 -0.03030 -0.13550 -0.12048 -0.04786 0.10075 0.01359 -0.00008 -0.00026 -0.00046 -0.00023 -0.00015 -0.00027 -0.00017 -0.00049 -0.00002 -0.00006 -0.00021 -0.00010 -0.00018 -0.00019 -0.00019 -1.79076 -4.94227 -7.57106 -4.47035 0.86154 -0.16022 0.23387 0.17064
0.14450 1.40890 1.67810 0 0 0 0.36615 0.27245 0.09569 0.06661 0.10646 0.15165 -0.03616 0.04059 0.20721 0.11842 -0.01061 -0.06385 -0.01754 0.07299 0.13379 0.03025 -0.06841 0.12639 0.07782 0.12055 0.16407 -0.03821 0.02852 0.21119 0.14278 -0.00330 -0.06183 -0.05500 0.08387 0.14970 0.03300 -0.04709 0.13315 0.08115 0.14736 0.17792 -0.04052 0.00944 0.22896 0.17606 -0.01838 -0.05437 -0.10191 0.10675 0.17178 0.03233 -0.04029 0.12943 -0.67359 -6.74114 -5.89108 -8.23362 0.68165 -0.27061 0.49864 -0.02032
0.19940 1.41450 1.68640 0 0 0 -1.31405 -1.41937 -1.55306 0.05967 -0.00326 0.01308 0.04420 0.04089 0.03479 0.05257 -0.00210 -0.02622 -0.08994 -0.04813 -0.02889 -0.03062 0.03234 0.03157 0.02954 -0.02606 0.02064 0.05301 0.00689 -0.00437 0.06470 -0.01134 -0.04013 -0.10089 -0.07287 0.00010 -0.05024 0.03363 0.03965 0.02265 -0.03793 0.01457 0.05747 0.04278 -0.00652 0.06546 0.00687 -0.04855 -0.10752 -0.10381 0.00368 -0.04644 0.04259 0.09302 10.81729 -4.82234 -5.36608 -8.31042 1.00718 0.07159 0.14120 0.30049
0.24850 1.39290 1.71190 0 0 0 0.48616 0.51036 0.19081 -0.00239 -0.07271 0.03713 -0.04543 0.07223 -0.02028 0.05384 0.09073 -0.18633 -0.02392 0.02484 0.01597 -0.03971 -0.04470 -0.03023 -0.00703 -0.07568 0.05293 -0.04901 0.09107 -0.02359 0.06864 0.06758 -0.16398 -0.05030 0.04551 0.02232 -0.05127 -0.03435 -0.00568 -0.00251 -0.06807 0.08049 -0.06193 0.09529 -0.01094 0.10527 0.06472 -0.16937 -0.09830 0.05985 0.03399 -0.05717 -0.04373 0.01501 -0.19481 -5.18212 -9.77604 -6.69759 1.13567 -0.19334 -0.05738 -0.14253
-0.46970 1.76200 1.98810 0 0 0 -0.65397 -0.94355 -0.47503 0.04998 0.03313 0.02111 -0.00493 0.06811 0.07434 0.02028 0.01180 -0.06569 -0.01611 0.11738 0.12196 0.04337 -0.03977 0.03426 0.03497 0.01905 0.03156 0.00100 0.06747 0.05829 0.01706 -0.00883 -0.04194 -0.00834 0.10847 0.10165 0.03676 -0.00843 0.04429 0.03841 0.02200 0.04074 -0.00060 0.08341 0.07810 0.02379 -0.03047 -0.07620 -0.01450 0.12902 0.13674 0.01993 -0.03838 0.07262 -3.70591 -8.77986 -5.99608 -5.46877 0.88724 0.11575 -0.25596 0.11717
-0.44670 1.79500 1.92110 0 0 0 -0.95400 -1.18146 -0.91893 0.02771 -0.07523 -0.01224 0.05647 0.12993 -0.04609 0.06555 -0.00316 -0.06339 -0.00384 0.09481 0.00266 0.11938 -0.03631 0.05422 0.01269 -0.09179 0.00686 0.06661 0.13514 -0.05283 0.07007 -0.02742 -0.04917 0.01284 0.10322 -0.00216 0.11728 0.01493 0.06427 0.01356 -0.10540 0.00730 0.05203 0.13477 -0.06135 0.04813 -0.03468 -0.07620 -0.00648 0.12059 0.01268 0.08127 -0.03571 0.10662 0.92236 -12.13775 -6.52107 -5.92958 0.67308 0.59042 0.22063 0.02551
-0.15840 1.68000 2.05570 0 0 0 -0.71398 -0.94355 -0.50674 -0.01140 -0.13048 0.13000 -0.07766 0.10656 -0.03129 0.05191 -0.01475 -0.02282 0.00970 0.03124 0.10027 -0.02390 -0.01260 -0.06056 -0.01588 -0.12820 0.13272 -0.07302 0.11468 -0.03863 0.04679 -0.01033 -0.02296 0.02107 0.04715 0.09893 -0.01851 0.00092 -0.02852 -0.01888 -0.17904 0.18180 -0.10149 0.14972 -0.04111 0.06841 -0.02153 -0.04030 0.00515 0.03690 0.14337 -0.03706 -0.01432 -0.05019 -0.83319 -6.38136 -11.24603 -5.77598 1.06714 -0.19334 -0.01766 0.13245
-0.52070 2.08940 1.58410 0 0 0 -1.16403 -1.39294 -1.07746 0.02808 -0.09529 0.10644 -0.06085 0.16879 -0.10971 0.05744 0.03472 0.03594 -0.05358 0.01280 -0.01953 -0.04980 0.08815 -0.02831 0.00440 -0.14109 0.12417 -0.04301 0.19651 -0.16771 0.07365 0.02536 0.00190 -0.05461 0.02878 -0.08286 -0.08812 0.11520 -0.00461 0.03568 -0.10266 0.17549 -0.06447 0.19418 -0.11654 0.11080 0.04105 0.03297 -0.05780 0.01733 -0.02094 -0.09975 0.09874 0.02182 -0.83319 -5.66182 -6.73107 -5.92958 0.74161 -0.00568 -0.04414 0.39215
-0.48140 1.94420 1.74150 0 0 0 -0.50395 -0.67920 -0.37991 0.18201 0.16553 0.01304 0.04469 0.05557 0.13214 0.03076 0.11515 -0.01146 -0.01157 0.08916 -0.08559 -0.04105 0.00913 0.03388 0.17866 0.15535 0.03583 0.04381 0.05882 0.13140 0.03676 0.10378 -0.00081 -0.00442 0.09207 -0.09011 -0.03967 0.00941 0.05392 0.18755 0.15215 0.06061 0.03533 0.07651 0.14029 0.05698 0.11363 -0.02137 -0.00648 0.10237 -0.08155 -0.05382 0.01853 0.06502 0.60317 -6.62121 -6.62607 -6.00638 0.54458 0.52419 0.02205 0.10189
0.21850 1.48980 1.55730 0 0 0 -0.83399 -1.26077 -1.33111 0.01672 -0.06238 -0.01266 -0.01793 0.04232 0.03001 -0.03899 0.05383 -0.02215 0.03929 -0.12337 -0.03087 0.00772 0.08074 -0.11008 0.01983 -0.00221 -0.02211 0.00740 0.01121 0.01610 -0.02914 0.04345 0.00371 -0.02089 -0.06566 -0.04160 -0.00794 0.07101 -0.02209 0.02932 0.01995 -0.02179 0.01646 0.00445 0.03138 -0.02082 0.06419 -0.00487 -0.04457 -0.08727 -0.05029 -0.04108 0.07812 0.02021 0.28398 -3.98287 -4.31609 -5.39197 1.05001 -0.03880 -0.18976 -0.12725
0.34700 0.64860 1.45670 0 0 0 0.03611 -0.67920 -0.15797 -0.09169 -0.02657 -0.04524 0.03181 -0.06158 0.00589 -0.07932 -0.00239 0.03863 0.03606 -0.10418 0.07069 0.06019 0.05259 0.00432 -0.07444 -0.04120 -0.01309 0.02580 -0.05881 -0.02735 -0.04168 -0.01033 0.04936 0.03284 -0.12501 0.04680 0.03676 0.04170 -0.00675 -0.07495 -0.03896 -0.05136 0.05711 -0.05687 -0.01646 -0.07206 -0.01838 0.06257 -0.00167 -0.11326 0.05246 0.03099 0.04565 -0.00459 6.98699 -9.01971 -4.73609 -4.77756 0.89581 -0.03880 -0.05738 0.32340
0.32960 0.74290 1.61030 0 0 0 0.51617 -0.04477 0.47617 0.04221 0.04176 -0.06809 -0.04890 -0.03746 -0.05591 -0.04312 0.09414 0.11283 0.05624 -0.04964 -0.03481 -0.12345 0.10000 -0.25748 0.04468 0.04097 -0.04681 -0.03341 -0.00846 -0.06328 -0.02878 0.09221 0.10360 0.04931 -0.03975 -0.03480 -0.15908 0.08249 -0.22373 0.02689 0.00591 -0.07268 -0.04306 -0.00858 -0.06981 -0.03851 0.07734 0.09994 0.03201 -0.03868 -0.03704 -0.14064 0.09072 -0.26102 6.34861 -9.97911 -4.42109 -5.08476 0.59598 -0.17126 -0.30891 0.38451
0.30560 0.77100 1.60130 0 0 0 0.75619 0.88045 1.14201 0.01517 0.05862 0.04939 0.02245 -0.03266 0.08446 0.01148 0.02112 -0.18233 0.07007 0.01957 0.06034 0.02454 -0.07582 0.04961 -0.00160 0.02002 0.03156 0.06261 -0.02458 0.07709 0.03820 -0.00028 -0.15946 0.06264 -0.00696 0.06674 0.02925 -0.05177 0.06284 0.00143 0.02406 0.05383 0.03461 -0.00551 0.06817 0.06398 -0.02364 -0.12861 0.02439 0.05276 0.07471 0.01993 -0.05175 0.06142 0.44357 -6.50129 -5.15608 -5.46877 0.99861 0.21510 -0.03090 0.12481
0.65820 0.80870 1.25540 0 0 0 0.81620 -0.28268 0.44446 0.01602 0.07545 0.11285 -0.13265 -0.16300 -0.13098 0.12010 0.16969 -0.06144 -0.00353 0.00867 -0.20046 -0.12312 0.05062 -0.16075 0.05811 0.13151 0.17262 -0.13543 -0.17132 -0.13764 0.16427 0.23799 -0.03064 -0.06559 0.02452 -0.21432 -0.16215 0.06039 -0.04208 0.03932 0.07338 0.14883 -0.13706 -0.15652 -0.13751 0.15283 0.22040 -0.05582 -0.02492 0.00451 -0.19566 -0.15372 0.02808 -0.12260 4.59306 -7.94039 -6.52107 -5.92958 0.72448 -0.34788 0.10148 -0.18072
0.69940 0.82660 1.26390 0 0 0 0.09612 -1.47224 -0.85551 -0.02606 0.03944 0.15028 -0.15164 -0.04177 0.03337 -0.00054 0.02258 -0.15079 0.20691 -0.03911 0.02681 0.13217 0.03777 -0.16497 -0.04131 0.01422 0.03631 -0.12583 -0.07415 0.02612 -0.02341 -0.08071 -0.08126 -0.00089 -0.01089 0.02458 0.04529 -0.04964 -0.10204 -0.01342 0.03228 0.16774 -0.21218 -0.07680 0.03101 -0.06911 -0.02890 -0.07717 0.18478 -0.01911 0.05104 0.01322 -0.04335 -0.16421 -3.70591 -4.58249 -5.89108 -9.69285 0.72448 0.31445 -0.29567 -0.21128
0.78810 0.84410 1.29240 0 0 0 0.66618 0.64253 0.72982 -0.08035 -0.02612 0.10101 -0.15284 -0.18409 -0.08315 -0.03635 0.17567 -0.10962 -0.03228 -0.04588 -0.01854 -0.16752 -0.01606 0.02812 -0.10701 -0.04797 0.10185 -0.15503 -0.19689 -0.09962 -0.02628 0.20180 -0.15449 -0.06363 -0.10173 0.00872 -0.15704 -0.01948 0.01752 -0.08708 -0.08657 0.09600 -0.14141 -0.18910 -0.11985 -0.01824 0.21146 -0.11988 -0.05499 -0.11596 0.00132 -0.15506 -0.02654 0.01621 0.28398 -7.34076 -7.04607 -5.54557 0.75875 0.31445 0.14120 0.07898
0.74060 0.76530 1.44680 0 0 0 -0.05390 -0.52059 -0.15797 0.00918 -0.02131 0.12380 -0.11705 0.00526 0.01734 -0.08804 0.01147 0.07152 0.04179 -0.04437 0.03174 -0.11706 0.03827 -0.11622 0.02897 -0.02863 0.10138 -0.09382 -0.00531 0.02946 -0.10615 0.01128 0.06744 0.03637 -0.04631 0.01688 -0.12360 0.00984 -0.10489 0.02114 -0.03930 0.12314 -0.10911 0.00944 0.03027 -0.09197 0.01528 0.06063 0.02921 -0.04374 0.04204 -0.12992 0.01318 -0.12060 1.87993 -5.06219 -9.04105 -5.39197 1.19564 0.10471 0.12796 0.04079
0.80040 0.82380 1.42070 0 0 0 0.21613 -0.33555 0.00057 -0.04537 -0.04759 0.16092 -0.17257 0.00925 -0.04259 -0.15771 -0.00965 -0.09235 0.15594 -0.01804 0.01843 0.02992 -0.00519 -0.18800 -0.01502 0.00842 0.10185 -0.12223 0.01436 -0.04114 -0.14232 -0.02642 -0.03832 0.12695 0.01862 0.02685 0.07941 0.04510 -0.15307 -0.04161 -0.04170 0.14108 -0.17335 0.00675 -0.02639 -0.17677 -0.02784 -0.07523 0.15350 -0.02282 0.02452 0.07189 0.01395 -0.18461 9.06174 -5.54189 -7.25607 -5.92958 1.05858 0.04951 0.18092 0.14772
0.83340 0.82680 1.30440 0 0 0 0.00611 -0.28268 -0.12626 -0.03083 -0.03268 0.04727 -0.03052 0.03350 -0.03043 -0.01592 -0.05399 0.00514 -0.01988 -0.08387 0.04308 -0.02356 0.01999 0.00969 -0.01760 -0.02251 0.03061 -0.00220 0.01554 -0.02317 0.00453 -0.04049 0.01727 -0.00285 -0.05352 0.04997 -0.05843 0.02301 -0.01103 -0.02070 -0.02663 0.02378 -0.02564 -0.00436 -0.03154 -0.01934 -0.03153 0.01356 -0.01771 -0.07918 0.06335 -0.04544 0.03075 0.00021 9.22133 -5.54189 -8.20106 -4.93116 0.99861 0.03848 0.32654 -0.19600
0.81950 0.82670 1.40650 0 0 0 -0.38394 -0.94355 -0.69698 -0.09519 -0.04394 0.00361 -0.02176 -0.01090 -0.00449 -0.00783 -0.02491 0.07860 0.01538 -0.04475 0.08104 0.04404 0.06395 -0.04827 -0.05473 0.00907 0.00496 0.01300 -0.02419 0.01986 0.01635 -0.00832 0.06654 -0.02599 -0.03319 0.09712 0.02038 0.06124 -0.01496 -0.07768 -0.02355 0.02232 0.00521 -0.02123 -0.01094 -0.00164 -0.01049 0.07228 -0.00888 -0.03497 0.09365 0.03468 0.02426 -0.02539 8.90214 -6.38136 -5.99608 -4.77756 0.70735 -0.11607 -0.20300 0.32340
0.77440 0.92170 1.64100 0 0 0 0.72619 0.45749 0.69811 -0.10263 0.05918 -0.21097 0.10442 -0.07022 -0.04114 -0.19341 -0.24236 0.20211 0.03682 0.12828 -0.05108 0.12712 0.03481 0.02620 -0.10358 -0.04990 -0.28998 0.16663 -0.00846 -0.05492 -0.17277 -0.26469 0.26179 0.02656 0.09732 -0.00534 0.17903 0.03065 0.02252 -0.11557 -0.07458 -0.26124 0.12498 -0.00934 -0.02161 -0.13179 -0.29081 0.26686 -0.06021 0.05141 0.02499 0.07826 0.03152 0.02622 -2.58874 -11.53813 -4.63109 -4.85436 0.47605 -0.14918 -0.04414 0.47617
0.83170 0.95740 1.69810 0 0 0 -0.47395 -0.70564 -0.63357 -0.05578 -0.04558 -0.06823 0.04174 -0.03635 -0.06351 -0.03487 0.02269 -0.03454 0.00728 0.03500 0.04013 0.01815 -0.05014 0.09030 0.01240 -0.04378 0.02728 -0.02661 0.02538 -0.03403 -0.01410 0.08417 -0.01482 -0.00559 -0.01942 0.05178 -0.05161 -0.04837 0.01288 -0.05010 -0.06122 -0.02373 0.02626 -0.02391 -0.06797 -0.03851 0.04684 -0.03641 0.00395 0.00113 0.04583 -0.01862 -0.07009 0.07702 12.25365 -5.18212 -10.30104 -5.54557 0.72448 -0.51347 0.18092 -0.17308
0.45660 1.33570 2.49160 0 0 0 -0.50395 -0.70564 -0.31650 0.03065 -0.14709 0.06534 -0.09846 0.13767 -0.04811 -0.08100 0.04510 0.01010 0.05275 0.06095 0.04752 -0.04105 0.00468 -0.11814 0.03097 -0.13658 0.08143 -0.10262 0.14890 -0.05701 -0.10507 0.05099 0.01320 0.04813 0.07797 0.02685 -0.05059 0.00686 -0.09454 0.04144 -0.15404 0.11636 -0.12472 0.15508 -0.05877 -0.08497 0.06051 0.01502 0.05687 0.08988 0.05340 -0.06187 -0.02807 -0.11020 -0.67359 -6.62121 -9.56604 -6.08318 0.83584 -0.21542 -0.24272 0.20119
0.82760 1.41920 2.44290 0 0 0 -1.55407 -1.68372 -1.55306 0.02993 -0.02527 0.03139 -0.02383 0.01551 0.00930 -0.01949 0.01811 0.07297 -0.02358 -0.01616 0.04604 -0.03668 -0.01655 -0.00451 0.02640 -0.03701 0.03346 -0.00660 0.01987 -0.00020 -0.01302 -0.00531 0.04665 -0.04402 -0.02795 0.03954 -0.04274 -0.03477 0.00146 0.03690 -0.04136 0.04995 0.00086 0.01519 -0.00799 0.02416 0.01318 0.06743 0.01317 -0.02316 0.02641 -0.02030 -0.04220 -0.00379 11.13648 -5.06219 -7.25607 -4.85436 0.74161 0.23718 -0.29567 -0.13489
0.93830 1.43550 2.40350 0 0 0 -0.86399 -1.02285 -0.79210 0.07248 0.04577 0.11975 -0.05203 -0.02263 -0.06122 0.02075 0.10063 0.10249 0.10482 -0.02594 -0.22412 -0.13758 0.04419 -0.05940 0.07411 0.04097 0.14792 -0.05261 -0.01200 -0.07497 0.04285 0.09272 0.10631 0.08421 -0.00991 -0.21976 -0.15089 0.02471 -0.02852 0.08691 0.04084 0.17453 -0.06193 -0.01126 -0.08048 0.03780 0.13309 0.09023 0.14228 -0.02215 -0.22691 -0.14165 0.05100 -0.01899 -0.35440 -7.46069 -6.73107 -5.31517 1.05001 0.03848 0.19415 0.16300
0.43390 1.53600 2.25410 0 0 0 -0.77398 -0.99642 -0.69698 -0.00389 -0.06867 0.06735 -0.09075 0.08582 -0.04102 -0.04760 0.00388 -0.02374 -0.02673 0.12979 0.00512 -0.14700 0.03284 -0.02716 -0.01560 -0.07536 0.08570 -0.08822 0.08399 -0.05116 -0.04096 0.00123 -0.03335 -0.02716 0.14093 -0.00307 -0.15772 0.04340 -0.00140 -0.01554 -0.10061 0.09018 -0.09713 0.10717 -0.06539 -0.02708 -0.01470 -0.04758 -0.02653 0.15130 -0.00863 -0.14098 0.03725 -0.01739 0.44357 -5.90167 -8.51605 -6.31359 0.68165 0.38068 -0.22948 -0.28002
5.99120 7.79110 2.15200 0 0 0 -1.79410 -1.20790 -0.63357 0.00118 -0.00317 0.00181 -0.00002 -0.00000 -0.00001 -0.00002 -0.00001 -0.00002 -0.00001 -0.00036 -0.00030 -0.00002 -0.00025 -0.00029 0.02440 0.01615 -0.03683 0.01660 -0.04662 -0.00312 -0.02305 0.15907 -0.19019 0.02264 -0.01581 -0.03435 0.05382 -0.07088 -0.03137 0.04114 0.01584 -0.04651 0.01356 -0.02928 0.00120 -0.02672 0.23512 -0.21838 0.00956 -0.02552 -0.02094 0.06351 0.02235 -0.05619 -2.58874 -3.38325 -8.30606 -2.85752 0.67308 -0.21542 0.39273 0.26994
5.41930 8.36110 3.28240 0 0 0 -0.89400 -1.02285 -1.14087 -0.01070 0.08555 -0.03964 0.04493 -0.10081 -0.02547 -0.09175 0.03120 -0.11490 0.09869 0.00904 -0.09742 0.04337 -0.08125 0.02697 -0.01445 0.06223 -0.03731 0.03900 -0.07809 -0.02944 -0.06890 0.02335 -0.09392 0.07127 0.01796 -0.07651 0.04733 -0.07598 0.02144 -0.01009 0.04050 -0.03245 0.03062 -0.05994 -0.02713 -0.04810 0.03001 -0.09658 0.05246 0.01463 -0.06403 0.04943 -0.05901 0.00861 6.34861 -1.22460 -2.42611 -2.01270 0.72448 0.08263 -0.67959 0.12481
6.28390 7.39330 1.85460 0 0 0 -0.05390 0.27245 0.88835 -0.02162 -0.01254 -0.02763 0.02018 0.00059 -0.01259 0.05172 -0.00283 -0.02045 -0.03754 0.01205 0.02977 0.01310 -0.19238 0.03080 0.01469 0.01293 0.01399 -0.00100 -0.04819 0.00231 0.00632 -0.01234 -0.00849 0.02029 0.00616 -0.02800 0.00639 -0.20853 0.01466 0.03872 0.01036 0.03105 -0.00422 -0.05151 0.00268 -0.00865 0.02580 -0.02671 0.03482 0.01328 -0.04082 0.02127 -0.16291 0.00781 -2.42915 -0.74490 -0.74612 -3.85594 0.83584 -0.20438 -0.22948 0.31577
6.05460 7.53440 2.18110 0 0 0 0.06611 0.69540 1.36395 0.02950 -0.04595 -0.00671 0.01264 0.02040 -0.01150 0.04094 0.11633 -0.11068 -0.02660 0.03537 0.01548 0.07633 -0.10792 0.01507 0.00669 -0.05441 -0.00216 -0.00500 0.05016 -0.01440 0.05145 0.03038 -0.02703 -0.04481 0.04190 0.03184 0.05143 -0.01905 -0.00032 0.00931 -0.05814 0.00293 -0.00894 0.05390 -0.00726 0.03854 0.03211 -0.00779 -0.04738 0.01936 0.03825 0.02596 0.06857 -0.01659 0.76277 -2.90355 -4.73609 -3.62554 0.88724 -0.22646 -0.05738 0.23175
6.15070 7.76410 2.31680 0 0 0 -1.10402 -0.83781 -0.18967 -0.03623 -0.00883 -0.01016 0.01822 -0.04180 -0.02034 0.02663 -0.07651 0.02097 -0.00235 0.00942 -0.00720 0.00267 -0.33116 0.02274 -0.01502 -0.04088 0.00686 0.01140 0.00453 0.00231 0.04070 -0.05708 -0.00985 -0.02755 0.00452 0.03229 -0.00146 -0.13121 0.04072 -0.00281 -0.03622 0.02232 -0.00459 -0.00436 0.01445 0.03928 -0.05677 0.02084 -0.02933 -0.01034 0.03162 -0.02097 -0.16940 0.02222 0.44357 -1.70430 -4.52609 -3.85594 0.81014 0.12679 -0.01766 0.32340
6.28820 7.76360 2.41150 0 0 0 -1.58408 -1.55155 -1.07746 0.01844 0.02719 0.04308 0.00042 -0.09514 0.00883 -0.03033 -0.04842 -0.00930 0.06505 -0.01165 -0.06488 -0.01044 -0.24473 0.02236 0.02211 -0.04410 0.05293 -0.02741 -0.00413 0.00858 0.04751 -0.09328 0.06699 -0.04402 0.00944 0.03410 -0.01544 -0.27778 0.00253 0.03417 -0.07321 0.05189 -0.03979 0.03588 0.01114 0.07172 -0.02258 0.03880 -0.05580 0.03420 0.04157 0.02395 -0.18582 -0.00739 6.98699 -4.58249 -4.10609 -2.55031 0.82728 0.25925 0.20739 -0.28002
